ply
format ascii 1.0
element vertex 1179
property float x
property float y
property float z
property uchar red
property uchar green
property uchar blue
end_header
-0.467747 -0.951902 -15.140837 100 107 119
0.317569 -0.870641 -16.063160 30 37 49
-1.241191 -3.297521 -16.252244 86 93 105
-0.182893 -1.151478 -16.098384 109 116 128
-3.468728 -3.067101 -15.486083 150 157 169
-1.258659 -3.417077 -16.256319 88 95 107
-0.915875 -11.238881 -16.392366 20 28 35
0.207176 -1.854119 -16.252855 22 29 41
-3.066437 -1.794300 -14.539581 38 45 57
-1.961871 -1.850522 -15.310778 18 25 37
-0.392239 -2.156206 -16.137537 83 90 102
10.722991 -4.832161 -12.526751 167 113 93
-2.619736 -10.262850 -15.552444 95 103 112
-1.668423 -3.938246 -15.317735 108 115 127
0.150749 -3.041053 -16.091460 34 41 53
-1.371630 -2.908040 -16.260194 126 133 145
-3.599661 -2.691032 -15.493304 27 34 46
-3.754902 -9.522949 -15.641503 121 128 140
-3.372620 -9.178773 -14.700163 123 130 142
-4.991061 -8.895202 -14.838395 54 62 71
-2.370168 -5.737174 -15.405506 142 149 161
-4.270606 -8.700913 -14.767738 24 32 39
-0.694398 -5.264574 -16.203888 82 89 103
10.721177 -6.970297 -13.309013 164 104 92
-2.296920 -4.998976 -15.403448 68 75 87
-0.910793 -6.315464 -16.251749 60 67 79
-0.185922 -2.009160 -16.111842 75 82 94
0.412887 2.879367 -15.020684 101 108 120
11.862786 -0.580289 -12.317795 167 96 95
-3.354574 2.479707 -13.690380 132 139 151
0.335006 -1.797238 -16.049381 72 79 91
-1.066744 -2.529640 -16.219674 94 101 113
0.293147 1.660454 -15.046958 75 82 94
0.373082 1.407398 -15.041574 27 34 46
-0.886020 -9.828113 -16.344090 83 91 100
-5.610149 -9.003898 -14.076432 167 170 179
0.000181 -4.465683 -16.135944 96 103 117
-5.063679 -8.996943 -14.847792 32 40 49
-0.734224 -10.020743 -16.333695 59 67 76
-0.832505 0.416735 -15.181521 95 102 114
-0.043668 -0.623920 -16.075044 32 39 51
-0.923942 -0.214344 -15.199742 114 121 133
0.132192 -1.516175 -16.067989 110 117 129
-2.548746 -7.775001 -15.473605 114 121 133
-0.455639 -7.746266 -16.237651 47 54 66
-0.575533 -8.146947 -16.261635 31 38 50
0.458209 -0.965019 -16.022557 100 107 119
-4.129521 -7.526622 -15.625139 11 19 26
-0.553832 -7.380804 -16.264470 91 98 110
0.264739 -2.271690 -16.065140 59 66 78
-5.409661 -9.546330 -14.075684 126 138 146
-2.851084 -10.239993 -15.574360 37 45 54
-0.867018 -6.623118 -16.279806 84 91 103
-2.152074 -8.276830 -15.447654 51 58 70
-0.487672 -0.035835 -16.143131 138 145 157
-1.173931 -9.324175 -16.360075 79 86 98
-2.282881 -9.563379 -15.497884 55 62 74
-0.113122 2.104142 -15.085057 114 121 135
-3.996616 -8.785650 -14.745280 32 40 49
-0.932189 -8.104400 -16.299405 78 85 97
0.024986 -2.655596 -16.098790 112 119 131
-1.603071 -6.527892 -15.346498 102 109 121
-0.342296 -2.653550 -16.140160 54 61 73
-1.342423 -11.486388 -16.423341 16 23 37
11.421018 -4.717171 -13.190641 156 102 82
-0.607439 -7.549255 -16.249066 100 107 119
-0.599345 2.857489 -15.129158 118 125 137
11.237340 -0.843486 -12.114857 126 78 76
-5.037799 -9.963382 -14.697525 37 45 54
-0.436338 1.871277 -14.066425 96 103 115
3.084967 1.543162 -14.750500 167 124 189
-5.273337 -9.536975 -13.769877 184 199 206
-5.457240 -9.456729 -13.782049 86 95 106
-4.522402 -10.136897 -15.749034 119 127 136
-2.857552 -10.293449 -15.568970 36 44 53
-2.197951 1.910338 -14.235652 100 107 119
0.293146 1.660456 -15.046963 75 82 94
-2.968399 1.868199 -14.310020 13 20 32
-3.406646 -10.171357 -15.619056 17 25 34
0.670334 1.367714 -15.010517 43 50 62
-3.818515 -9.500268 -13.636421 119 127 136
-2.734112 1.545784 -14.291245 153 160 172
-1.956794 1.181528 -14.221353 26 33 45
-2.679358 -10.039875 -15.543552 98 106 115
11.340963 -2.023910 -12.138983 181 75 79
-1.191983 0.823269 -14.152983 22 29 41
-3.606840 1.314741 -14.377173 78 85 97
-2.540836 -10.053800 -15.530352 24 32 41
-4.222848 -9.215396 -13.660110 165 173 182
-1.229316 0.563138 -14.160208 55 62 74
-2.431837 0.736997 -14.272409 81 88 100
-3.277780 -9.499313 -14.527242 112 120 129
11.168421 -2.483862 -12.168538 206 117 117
-4.831874 -9.547103 -15.740784 195 203 212
-2.818967 -9.761047 -15.572538 123 130 142
9.812867 -10.755780 -13.393663 169 125 113
0.187445 0.715047 -16.268258 89 96 108
-2.068388 -9.696312 -15.472715 109 116 128
-2.501442 0.738597 -15.352458 105 112 124
-4.189780 0.676722 -14.439949 19 26 38
-0.776632 -10.061219 -16.568460 22 30 39
-3.007275 -0.094312 -13.388356 112 119 131
-4.881920 -8.876865 -14.651932 11 19 28
-5.008390 -8.798070 -14.661010 111 119 128
-3.562180 0.586874 -15.464943 105 112 124
-3.930839 -0.110323 -13.467913 32 39 51
-3.219986 -10.016342 -14.538325 114 122 131
-5.357899 -8.802847 -15.793669 4 12 21
0.494052 -0.767411 -15.059915 27 34 46
-2.558968 -0.652375 -14.304134 67 74 86
-4.238895 -8.688071 -14.589088 12 20 29
11.036905 -3.608068 -12.215865 164 106 94
-3.380155 -9.012646 -15.582333 97 104 116
-4.086668 -8.575674 -14.572233 114 122 129
11.587910 -3.645292 -12.986379 183 125 115
-3.200250 -8.758568 -15.557298 27 34 46
-0.188290 -1.095885 -16.303814 71 78 90
-2.676905 -1.020892 -15.393329 103 110 122
-3.284257 -1.195214 -14.359637 95 102 114
-2.562049 -8.761422 -15.493911 100 107 119
0.132295 -1.453037 -16.271840 110 117 129
-1.793760 -8.779632 -15.417919 88 95 107
-0.673158 -9.132635 -16.499026 90 98 107
-4.162559 -8.444443 -15.644385 25 33 42
0.306347 -1.781268 -16.256721 39 46 58
-2.461297 -1.557842 -15.378984 27 34 46
-2.888805 -1.481813 -15.421862 139 146 158
-3.381831 -8.532619 -15.569098 69 76 88
0.274347 -1.997399 -16.263844 103 110 122
-1.240647 -8.997980 -16.557961 71 78 90
-2.916020 -8.665794 -16.734131 143 150 162
6.498268 -3.802283 -13.516236 179 175 254
-0.608277 -8.931130 -16.516774 27 34 46
-2.693560 -2.365415 -14.323357 39 46 58
-3.566670 -8.034696 -15.597774 153 160 172
-4.748457 -7.458713 -14.601710 13 21 30
11.140899 -4.833071 -13.069160 161 108 85
-0.657536 -8.277609 -16.504027 27 34 46
-3.264023 -7.721814 -15.535719 101 108 120
0.125263 -3.003928 -16.297989 15 22 34
0.093367 -3.219185 -16.305501 83 90 104
-0.504894 -8.002486 -16.448466 100 107 119
-4.811744 -7.127009 -14.618414 15 23 32
-1.132565 -3.538744 -15.250426 84 91 103
-2.504279 -3.667626 -15.393734 100 107 119
-1.615759 -3.946771 -15.308058 98 105 117
-1.547353 -3.912355 -16.535816 126 133 145
-1.928920 -7.323791 -16.619930 123 130 142
-0.762145 -4.993088 -16.437194 93 100 114
-2.041348 -4.920980 -15.371515 93 100 112
-2.270251 -5.025933 -15.396993 133 140 152
11.293174 -7.064046 -14.061434 177 122 111
-0.163289 -5.445970 -16.379328 24 31 45
-0.963063 -6.353819 -16.489595 149 156 168
-0.455424 -6.422496 -16.434471 116 123 135
-3.855555 -5.496353 -15.567188 30 37 49
-0.926934 -11.324206 -16.595505 68 76 83
-5.329540 -10.362315 -15.266151 118 126 135
-5.199018 -10.223105 -14.567546 154 162 171
-3.955945 -9.018827 -15.639545 105 112 124
11.314948 -1.578406 -12.128329 168 118 44
-3.264229 2.336627 -13.378102 84 91 103
-0.628655 -5.333501 -15.237103 98 105 119
-2.292105 -4.189231 -15.382062 128 135 147
-1.393243 -7.754803 -16.571414 131 138 150
-0.932733 -9.893708 -16.550409 93 101 110
-3.155886 -3.215558 -14.382097 72 79 91
-5.035861 -8.990235 -14.668876 37 45 54
-3.863335 -7.584596 -15.615707 156 164 173
-3.399805 -9.147446 -15.588117 58 65 77
-0.932620 -0.220282 -15.174492 114 121 133
-0.401412 -2.545085 -16.350577 84 91 103
-0.051320 -0.673553 -16.282083 101 108 120
-3.741029 -9.522290 -15.632633 87 94 106
-0.787125 -9.407137 -16.519712 25 33 42
-0.773920 -1.298295 -15.200517 84 91 103
-0.753985 -8.692639 -16.495326 103 110 122
-1.831848 0.616893 -14.216895 81 88 100
11.309695 -4.746739 -13.049811 156 102 82
-1.911880 -10.049662 -15.468282 89 97 106
-0.329084 -2.358271 -15.145193 46 53 65
0.242367 -2.213369 -16.271036 39 46 58
-0.859782 -6.659015 -16.485209 78 85 97
-1.064972 -5.021726 -16.471945 82 89 103
9.762304 -11.091114 -13.413652 184 131 117
-0.418119 -0.312285 -15.148275 71 78 90
-0.969261 -8.163200 -16.504643 78 85 97
-1.187891 -9.371139 -16.592744 79 86 98
8.298852 -4.113022 -14.280308 52 52 109
-2.225629 -9.341503 -15.477476 93 100 112
-1.072144 -2.504275 -16.426893 73 80 92
-0.136064 2.109158 -15.087444 114 121 135
-2.981420 -8.235682 -15.521073 39 46 58
-1.907417 -1.232200 -15.316880 86 93 105
11.442999 -3.907126 -13.009023 175 112 106
-2.137418 -8.265553 -15.437539 51 58 70
-2.406370 1.409780 -14.261512 89 96 108
-2.119280 -9.408825 -16.666652 121 128 140
0.085071 -2.843511 -15.111142 95 102 114
-1.918996 -8.050526 -16.607411 66 73 85
-0.120237 -0.936871 -15.099495 24 31 43
-1.316496 -10.500645 -16.611281 81 89 98
-0.095729 -2.191509 -15.117904 30 37 49
-0.755006 -10.666798 -14.753108 20 28 35
-2.885370 1.772943 -13.532912 46 53 67
0.357675 1.393302 -14.398864 25 32 44
-4.724056 -10.279193 -16.484593 118 126 135
0.817327 1.821263 -15.685191 107 114 126
-3.391673 -10.408485 -16.350673 67 75 84
0.244278 1.172400 -14.413218 98 105 117
-3.198496 -9.881017 -14.955870 31 39 48
-2.845044 1.736956 -14.714324 133 140 152
-1.958150 1.384810 -14.630130 30 37 49
-1.601191 1.716144 -15.958200 105 112 124
-1.550690 1.725101 -13.414540 110 117 129
11.266598 -2.412906 -12.307717 189 97 101
-4.615561 -9.338377 -15.069713 206 214 223
-2.955396 -9.855585 -16.289216 86 93 105
0.192399 0.543653 -15.770594 65 72 84
-3.875565 0.409094 -13.638115 31 38 50
10.061167 -10.880820 -13.762560 169 125 113
-3.338469 0.662011 -14.775324 110 117 129
-0.844665 -10.285756 -17.654516 57 65 74
10.186375 -10.475250 -13.732484 150 116 98
-1.652046 -0.000589 -14.617879 142 149 161
-3.783408 -8.791640 -14.977615 36 43 55
-5.134410 -9.193196 -18.134366 114 122 129
-1.749539 0.044894 -15.992824 98 105 117
0.465464 -0.560228 -15.755320 26 33 45
11.138087 -3.582960 -12.356089 164 106 94
11.001875 -3.690537 -12.372045 137 52 49
-0.572135 -9.012568 -16.015337 94 102 111
-4.506615 -7.991508 -15.022993 100 108 117
0.282136 -1.740383 -17.375934 103 110 122
-0.522970 -8.126289 -17.556721 98 105 117
-1.317458 -7.661377 -16.056620 69 76 88
10.759699 -4.837660 -12.432479 176 123 100
-1.732941 -7.525178 -16.097212 79 86 98
-1.211772 -6.385483 -5.558373 76 84 91
-1.769684 -7.179780 -16.092427 59 66 78
0.147511 -3.016061 -15.794540 15 22 34
-2.171665 -2.625494 -16.043172 105 112 124
-0.361152 -7.021319 -15.938081 31 38 50
-2.923956 -3.046139 -14.791097 135 142 154
-1.671786 -3.333763 -14.647275 29 36 48
-2.058050 -3.082172 -16.038233 72 79 91
-3.469867 -6.036727 -14.877655 122 129 141
-0.287320 -6.524644 -15.917661 16 23 35
-1.193423 -3.970144 -14.613801 41 48 60
-1.536006 -6.185662 -16.043619 101 108 120
-0.430740 -6.336091 -15.928429 48 55 67
-3.100044 -4.054442 -16.168865 88 95 107
-3.622506 -4.157904 -14.852015 86 93 105
-2.980992 -4.497213 -14.811127 20 27 39
-0.292166 -5.946349 -17.477576 22 29 43
-3.088519 -5.125837 -14.820902 78 85 97
10.972757 -7.007494 -13.513584 163 109 100
-0.810984 -3.632110 -15.911417 43 50 64
-2.172800 -5.655792 -14.745510 59 66 78
-0.103577 -4.676408 -17.428682 43 50 64
-1.008607 -4.976502 -15.959906 30 37 51
-2.129561 -4.224425 -14.709620 122 129 141
-2.646784 -3.684926 -16.146359 50 57 69
0.187992 2.313911 -15.751131 34 41 55
-2.571226 -3.523960 -16.101940 122 129 141
-1.623510 -0.335106 -15.983624 89 96 108
-1.214903 -3.393968 -15.951276 86 93 105
11.259862 -5.575991 -13.432952 216 166 81
-0.817673 -6.623008 -15.976974 78 85 97
-3.276251 -3.152007 -14.826788 90 97 109
-0.926737 1.662378 -14.514869 93 100 112
-0.925025 -10.824755 -17.680184 45 53 60
-2.532178 0.918953 -14.692638 95 102 114
-1.807056 -9.789420 -14.825320 65 73 82
-1.050082 -7.609676 -16.026832 119 126 138
-3.524753 -9.295058 -14.968237 76 83 95
-0.015577 0.321877 -15.796657 101 108 120
-3.047127 -8.050417 -16.249695 90 97 109
0.246806 -2.345729 -15.771559 18 25 37
-3.673184 -7.451247 -14.931339 51 59 68
-5.165244 -9.040125 -15.111866 59 67 76
-0.838191 -9.653504 -16.062442 83 91 100
10.889118 -4.397844 -12.405737 188 132 126
-2.844654 -9.100269 -16.256300 34 41 53
-2.305842 -8.798227 -14.841074 43 50 62
-0.520391 -0.721396 -15.866920 100 107 119
-1.412459 -4.744643 -15.998899 80 87 99
-2.087089 -1.046895 -16.044135 116 123 135
-0.853168 -6.278598 -15.972456 29 36 48
-0.507659 -3.938557 -15.884105 86 93 107
-1.070442 -9.934745 -14.734159 46 54 63
-0.389971 -2.228164 -15.876075 136 143 155
-0.209990 0.287667 -14.471108 30 37 49
10.825505 -7.547408 -13.548746 175 140 145
-0.646309 -2.183332 -15.903384 67 74 86
-0.433010 -0.123255 -15.848972 64 71 83
-4.069775 0.385268 -14.850508 84 91 103
-1.131909 -5.814140 -15.991643 59 66 80
-0.097530 -2.019512 -15.840487 30 37 49
0.069228 -2.653674 -15.833270 45 52 64
-1.840548 -6.730810 -14.740457 19 26 38
-0.536945 -4.423838 -17.477485 72 79 93
-1.064074 2.302746 -15.892458 74 81 93
0.317398 1.177367 -14.161728 103 110 122
-4.151560 2.016136 -14.586916 61 68 80
-2.768453 1.627361 -14.456790 153 160 172
0.733108 1.486812 -15.698469 32 39 51
-0.123597 0.786778 -14.210358 62 69 81
-2.137919 1.101930 -14.401847 98 105 117
0.207310 -3.150863 -5.428160 93 100 112
0.627379 0.770671 -15.719027 23 30 42
-8.827457 1.018381 -12.403267 83 92 103
11.003918 -2.463538 -11.999368 196 96 109
-0.322598 0.754445 -15.825541 78 85 97
0.112214 -0.220860 -14.202927 101 108 120
11.013405 -2.868900 -11.966956 183 128 126
-3.350984 0.357813 -14.528337 110 117 129
-4.289415 0.241632 -14.619768 38 45 57
-0.328127 -0.613985 -14.251893 45 52 64
-2.256671 -0.440798 -14.434405 100 107 119
11.526570 -3.214740 -13.155866 228 174 165
-0.916483 -0.399659 -15.906274 89 96 108
10.637203 -3.874500 -12.076739 233 176 173
10.625044 -4.423482 -12.051938 191 135 129
-1.527438 -1.660344 -15.991558 22 29 41
10.453053 -4.625653 -12.073810 229 174 161
-0.758080 -2.945673 -15.928733 43 50 62
0.322553 -3.922075 -11.807392 103 110 124
-0.291444 -3.334136 -15.885136 82 89 101
-2.863840 -3.717915 -14.516365 125 132 144
-0.415789 -4.552509 -15.879197 74 81 95
-2.924807 -5.516287 -14.560576 107 114 126
10.702620 -7.512955 -13.333955 175 140 145
-1.646712 -5.810354 -16.040074 101 108 120
-0.885283 -6.324728 -15.969877 79 86 98
-0.292754 -6.506457 -15.910490 11 18 30
-3.390990 -6.020308 -14.615693 91 98 110
11.443310 -8.628044 -14.702685 165 110 99
-0.381318 -7.102228 -15.935105 22 29 41
-1.222156 -7.197426 -16.027553 0 6 18
-0.526329 -7.387110 -15.958089 91 98 110
-1.853476 -7.219483 -16.095563 91 98 110
-3.425886 -7.020874 -16.258430 93 100 112
-0.469807 -7.697263 -15.960299 17 24 36
-1.077206 -7.622221 -16.023065 119 126 138
-1.794510 -7.533599 -16.097181 75 82 94
-1.295946 -7.696868 -16.048330 65 72 84
-3.952954 -7.178442 -14.695880 109 117 124
-4.837152 -7.068473 -14.774201 33 41 50
-4.063222 -7.669816 -16.341425 105 113 122
-1.413953 -8.494962 -16.082424 60 67 79
-4.464051 -7.968599 -14.763022 138 146 155
-0.631880 -8.786474 -16.008027 17 24 36
-1.152439 -8.828401 -16.064198 36 43 55
-4.042306 -8.488989 -14.738822 100 108 115
-4.937743 -8.482719 -14.819724 33 41 50
-0.220719 -9.838661 -17.906040 109 114 124
-0.720211 -9.379774 -16.034857 20 28 37
-3.694702 -8.809538 -14.716395 104 111 123
10.032955 -10.407584 -13.518226 146 111 96
-0.877884 -9.735216 -16.369574 89 97 106
-5.089866 -8.845002 -14.843342 103 111 120
-5.017675 -9.042169 -14.842316 53 61 70
-2.148624 -9.936128 -16.201210 84 91 103
-0.908821 -10.659018 -18.014201 100 108 115
-5.220156 -9.808905 -16.833909 176 184 193
-6.334898 -9.638325 -15.222600 91 90 105
-2.824829 -10.562068 -16.582189 80 88 97
-1.436072 1.161888 -14.631451 105 112 124
-2.143982 1.307956 -14.700351 48 55 67
-3.727603 1.512507 -14.855789 78 85 97
-4.589326 0.882859 -13.260900 100 108 124
-0.730529 1.471437 -16.598132 39 46 58
-1.085756 0.258224 -14.608586 95 102 114
0.593297 -0.306978 -14.450227 47 54 66
-4.349018 0.660225 -14.926505 105 112 124
-2.938341 0.023449 -14.795161 75 82 94
-4.397645 0.303949 -14.935388 17 25 34
0.649856 -3.572825 -6.032441 31 38 50
-0.756468 -0.748096 -14.591171 91 98 110
-1.467429 -0.731953 -14.661023 76 83 95
-3.342367 -1.099298 -14.850504 105 112 124
0.178950 -1.346439 -16.525056 90 97 109
6.668392 -3.771775 -13.922243 195 195 250
10.355093 -5.073470 -12.088909 231 176 161
-1.103887 -3.133289 -14.667855 84 91 103
-3.266756 -3.909713 -16.963095 103 110 122
10.072060 -6.873357 -12.179728 192 136 128
-0.135020 -5.670640 -16.583442 102 109 123
-3.787578 -5.630011 -14.937656 71 79 86
-0.319670 -6.912426 -16.633846 101 108 120
-0.537729 -7.516377 -16.673928 37 44 56
-0.485578 -8.027354 -16.681390 100 107 119
-3.691771 -7.495312 -14.973384 91 99 108
-2.801119 -7.946453 -14.901287 87 94 106
-3.386520 -7.876922 -14.954617 47 54 66
-2.501889 -8.323208 -14.883635 88 95 107
-3.737501 -8.670826 -17.064828 66 73 85
-0.602546 -9.079807 -16.374593 89 97 106
-1.283849 -9.070432 -16.800117 60 67 79
-1.193602 -9.332618 -16.797443 69 76 88
-4.211428 -8.586237 -15.051361 104 112 119
-5.051837 -8.492292 -15.127383 33 41 50
-3.165324 -8.817225 -14.960015 62 69 81
-3.769426 -8.864883 -15.017844 97 104 116
-9.143686 -7.415629 -11.532942 147 147 159
2.195318 -10.065183 -16.439747 193 128 207
0.653452 0.436158 -15.582416 103 110 122
-2.648392 0.952128 -15.940189 105 112 124
-3.979372 0.263353 -13.846776 96 103 115
0.444235 0.028358 -15.611093 29 36 48
-4.034011 -0.135568 -13.857190 32 40 49
-2.462877 -0.834233 -13.728061 67 74 86
-3.676221 -0.705502 -16.070892 95 102 114
-4.194914 -7.814492 -13.989852 65 73 82
-4.109784 -7.933544 -12.531776 37 45 54
-2.587175 -9.336593 -8.292861 213 221 230
-0.718871 -2.004004 -5.951305 147 154 166
-1.038837 -5.539205 -8.659729 100 107 119
-0.086937 -5.591546 -9.575928 91 98 110
0.158821 -5.651883 -9.347458 20 27 41
-1.347586 -2.024852 -5.942139 157 164 176
-0.062503 -2.006016 -6.413170 140 147 159
-2.315642 -8.118169 -8.329105 112 120 129
-0.637992 -7.614972 -4.147613 0 4 16
-1.188887 -5.922642 -8.558530 138 145 157
-0.797889 -2.167565 -6.170662 147 154 166
-0.221185 -2.092407 -6.513697 10 17 29
-0.839856 -2.176226 -6.179466 124 131 143
-1.010221 -2.174423 -6.169286 164 171 183
-0.559752 -8.389335 -9.687569 130 137 149
-0.544837 -2.097690 -6.483757 131 138 150
-0.590858 -2.098224 -6.468024 146 153 165
-1.036439 -8.156307 -9.452051 118 125 137
0.697534 -2.061232 -7.046871 122 129 141
-0.489161 -7.487851 -4.251376 90 97 109
-1.417291 -7.962015 -8.991100 124 131 143
-1.614798 -2.321424 -5.939135 4 11 23
-0.613416 -2.168131 -6.568666 136 143 155
-1.179452 -2.245760 -6.251593 36 43 57
-1.317128 -5.929670 -8.531074 4 11 23
-1.383968 -5.920925 -8.509855 103 110 122
-0.410570 -5.900938 -3.315320 182 189 201
-1.112426 -7.861370 -9.031919 100 107 119
-0.769821 -6.059166 -9.034058 122 129 141
4.318376 -2.209906 -8.399939 155 136 150
-1.105711 -4.983913 -8.603574 129 136 148
5.537465 -5.628110 -11.179052 253 255 255
-0.850544 -7.838710 -9.632891 88 95 107
-0.189727 -2.311464 -6.799593 135 142 154
-1.007569 -5.015236 -8.337101 125 132 144
-0.895929 -5.027162 -8.370050 88 95 107
-1.346280 -7.608602 -8.850485 118 125 137
-0.849080 -2.414256 -6.471256 22 29 41
-1.324184 -2.383336 -6.378488 22 29 41
-1.378018 -5.993243 -8.552297 124 131 143
0.059191 -2.271200 -7.179279 88 95 107
-1.639027 -4.820523 -7.771366 139 146 158
0.040424 -4.845572 -9.102850 87 94 106
-1.117090 -2.446758 -6.487902 138 145 157
4.341190 -2.362448 -8.562467 146 127 141
-1.875053 -7.335953 -8.581620 147 154 166
-1.587454 -4.741509 -7.741369 133 140 152
-1.497384 -2.606951 -6.290827 151 158 170
-0.153315 -7.601203 -9.711491 130 137 149
-0.078615 -2.379959 -7.285005 124 131 143
-0.468680 -2.475739 -6.953766 20 27 39
-1.623309 -4.717112 -7.718455 135 142 154
-0.968624 -6.082683 -8.995560 58 65 77
-0.219286 -7.556986 -9.969458 6 13 25
-1.536411 -2.543217 -6.540116 31 38 50
-1.593773 -6.071453 -8.267495 23 30 42
-0.089447 -2.542255 -7.085132 132 139 151
-0.244803 -4.652026 -8.922659 108 115 127
-0.474105 -4.644565 -8.514850 3 10 22
-1.553112 -2.727418 -6.411720 154 161 173
-0.380350 -2.643564 -7.153119 32 39 51
-0.425948 -2.655961 -7.159353 103 110 122
-1.060840 -2.614871 -7.021553 152 159 171
-0.128258 -7.487853 -9.963181 83 90 104
-0.558185 -2.678055 -7.163218 131 138 150
-0.729796 -2.668598 -7.121088 122 129 141
-0.582316 -2.814748 -6.946612 135 142 154
5.819329 -8.494875 -12.258403 46 43 119
0.117184 -2.685034 -7.660674 138 145 159
-1.235808 -6.181641 -8.693241 139 146 158
-1.366118 -7.187651 -8.904344 133 140 152
-0.634326 -4.306227 -8.567903 131 138 150
0.111193 -2.746824 -7.737422 112 119 131
-1.371165 -2.862585 -6.899071 47 54 68
-0.919744 -7.200697 -9.316164 123 130 142
-0.276021 -2.853414 -7.391798 115 122 134
-0.201605 -2.764309 -7.688471 154 161 173
-1.081887 -4.349135 -7.863423 136 143 155
-0.352830 -2.897502 -7.422710 125 132 144
-1.058243 -4.228519 -8.084872 59 66 78
-1.344151 -4.245542 -7.730015 166 173 185
-1.097375 -4.162736 -8.033581 137 144 156
-0.712340 -2.955885 -7.421636 89 96 108
-1.318747 -4.186831 -7.702050 1 8 20
-0.708166 -4.176998 -8.123495 17 24 36
-0.126305 -4.156053 -8.573268 100 107 119
-0.611662 -3.096250 -7.224038 139 146 158
-0.663449 -3.091470 -7.216092 137 144 156
-0.788417 -4.079339 -8.365563 101 108 120
-0.243678 -3.123400 -7.664526 0 3 15
-1.322694 -4.127557 -7.657665 168 175 187
-1.193897 -4.033001 -7.917936 12 19 31
-1.746555 -3.280411 -6.907702 139 146 158
-1.581199 -6.238275 -8.365684 112 119 131
-0.988889 -6.872875 -9.123164 124 131 143
-0.807379 -3.932862 -8.248288 101 108 120
-1.048178 -3.282647 -7.327190 108 115 127
-1.147711 -3.920077 -7.831098 30 37 49
-0.806383 -6.358073 -9.192401 114 121 133
-1.506932 -6.766691 -8.934246 124 131 143
-1.358344 -6.738554 -8.959184 123 130 142
-1.500272 -3.921790 -7.460063 139 146 158
-0.613267 -3.347670 -7.800563 98 105 117
-0.879813 -3.418086 -7.473624 156 163 175
-0.405516 -3.843874 -8.261722 126 133 145
0.312633 -3.467966 -8.093192 0 2 14
0.009137 -3.445493 -8.016551 123 130 142
-1.236503 -3.888872 -7.479075 105 112 124
-0.927490 -3.503873 -7.539710 152 159 171
0.265348 -3.427805 -8.413822 95 102 114
0.468901 -3.479322 -8.510985 25 32 44
-0.306823 -3.537641 -8.027137 116 123 135
-1.711214 -6.436145 -8.177164 105 112 124
-0.525531 -6.740457 -9.778079 105 112 126
-0.329607 -6.687757 -9.491642 119 126 140
-1.836117 -6.487769 -7.930950 101 108 120
-1.750498 -3.732374 -7.276039 12 19 31
-0.817017 -3.715623 -7.737459 126 133 145
-1.039924 -5.775986 -8.508808 11 18 30
-1.472365 -5.628915 -8.319997 110 117 129
-0.983723 -5.712878 -8.777293 3 10 22
-1.194829 -8.626953 -9.333480 121 128 140
-1.237917 -8.728222 -9.362701 136 143 155
-1.275693 -8.861250 -9.413989 112 119 131
-1.727973 -8.759387 -8.992671 110 117 129
-1.640395 -8.919919 -9.332437 114 121 133
-1.532809 -8.909945 -9.106288 144 151 163
-2.492495 -8.557756 -8.023241 146 154 163
-1.458902 -8.923784 -8.900401 6 13 25
-2.291715 -8.782032 -8.381183 13 21 28
-2.273729 -8.756517 -8.165571 107 115 122
-1.915379 -9.137844 -8.849220 105 112 124
-2.339331 -8.966705 -8.227375 105 113 120
-2.467188 -8.996816 -8.413265 20 28 37
-2.159298 -9.095309 -8.538114 107 114 126
-1.546138 -9.332062 -9.027643 121 128 140
11.137944 -12.924885 -15.386304 99 67 53
-2.237686 -9.206900 -8.559170 128 136 145
-1.721295 -9.437580 -8.793173 136 143 155
-1.205916 -9.766901 -9.624417 117 124 136
-2.031694 -9.620317 -8.992263 104 111 123
-1.632610 -9.701004 -8.915960 109 116 128
-2.524555 -9.410453 -8.135981 202 210 219
-2.055228 -9.699976 -8.789917 27 35 44
-2.386352 -9.617692 -8.449084 0 6 15
-0.196058 -2.271279 -6.748594 88 95 107
-0.655803 -8.062740 -9.512431 88 95 107
-0.689555 -8.111568 -9.524474 109 116 128
-0.291353 -2.150601 -6.580386 101 108 120
-1.355999 -7.423596 -9.023004 26 33 45
-0.158944 -6.441796 -9.721162 16 23 37
-0.641230 -9.437834 -10.080500 80 87 99
5.434457 -2.396929 -8.831352 150 123 137
0.196943 -3.691438 -8.260385 114 121 133
0.269964 -4.888604 -9.215662 38 45 57
-0.810310 -9.275471 -9.711528 95 102 114
-0.764778 -3.814978 -8.164632 95 102 114
-0.291879 -6.827959 -9.594143 75 82 96
-1.660176 -8.533522 -8.920616 104 111 123
-0.415445 -5.884980 -9.329270 104 111 125
0.303195 -4.365530 -9.185721 107 114 126
-0.414068 -2.718592 -7.226180 12 19 31
-0.332975 -9.072513 -10.050973 89 96 108
0.157379 -3.382232 -8.347355 102 109 121
0.065594 -2.435785 -6.987510 93 100 112
-0.198968 -3.376527 -7.908128 102 109 121
-0.023930 -5.680510 -9.313198 11 18 30
-0.914595 -4.914538 -8.291254 22 29 41
0.496951 -2.288107 -7.290219 22 29 41
-0.455479 -7.857262 -10.041593 84 91 103
-0.136913 -6.771531 -9.908144 6 13 27
0.287505 -2.709611 -7.723371 122 129 143
-1.511588 -5.343528 -8.427913 107 114 126
-1.338950 -4.305072 -8.091181 109 116 128
0.348908 -2.829356 -7.862695 91 98 110
0.764475 -1.864358 -6.784412 27 34 46
-0.282827 -7.154960 -9.749733 83 90 104
-0.610739 -1.939129 -6.263277 40 47 59
0.195063 -4.224308 -8.708735 13 20 32
0.272635 -3.507068 -8.485457 29 36 48
-0.251914 -1.950978 -6.309254 100 107 119
-0.292311 -4.507261 -8.468578 8 15 27
-0.349553 -7.845102 -9.769538 0 6 18
-1.180079 -3.669265 -7.624139 103 110 122
-1.045782 -3.032172 -7.097312 25 32 44
-1.290413 -2.235658 -6.236826 34 41 55
0.160951 -5.216770 -9.406619 115 122 134
-0.963754 -10.200286 -10.009802 107 115 124
0.024727 -5.997123 -9.854939 107 114 128
-1.594336 -5.310934 -8.389367 23 30 42
-0.094217 -6.833303 -9.954047 111 118 132
0.614483 -2.389132 -7.857605 91 98 110
-1.125710 -2.373064 -6.379927 146 153 165
0.575698 -2.822154 -7.910953 37 44 56
-1.094447 -9.886601 -9.370396 75 83 92
0.323615 -3.490408 -8.483545 22 29 41
0.378390 -2.899344 -7.941072 44 51 63
-1.373571 -3.482100 -7.125278 124 131 143
0.087915 -2.193797 -6.696581 104 111 125
-0.052698 -2.738824 -7.314371 103 110 124
0.435595 -3.170948 -8.220595 12 19 31
0.437296 -2.358451 -7.361718 97 104 116
0.676204 -2.153608 -7.164102 112 119 133
-0.106226 -1.971516 -6.438180 111 118 130
0.025672 -1.831486 -6.762062 142 149 161
-0.605375 -2.120008 -6.123466 66 73 85
-1.923300 -5.377797 -7.949960 110 117 129
-1.229390 -6.186396 -8.585466 139 146 158
-1.880031 -5.409433 -7.978181 13 20 32
-0.959016 -2.148658 -6.142866 72 79 91
-1.016428 -2.172444 -6.171334 164 171 183
-0.100383 -5.597965 -9.660722 86 93 105
-1.746192 -5.531991 -8.092610 52 59 71
-1.391591 -5.602640 -8.211781 20 27 39
-0.503509 -6.379879 -3.588906 100 107 119
-0.957088 -6.013651 -9.267983 119 126 138
-1.753733 -5.638869 -7.826098 109 116 128
-1.233482 -2.236977 -6.211452 111 118 132
-0.961467 -5.710611 -8.724536 18 25 37
-1.171702 -5.828661 -8.739592 97 104 116
-0.576149 -5.787986 -8.852905 88 95 107
-0.698598 -5.773480 -9.196135 29 36 48
-0.135009 -2.252942 -6.811475 107 114 126
-1.210930 -2.336187 -6.361982 23 30 42
-1.647997 -2.322564 -6.297341 163 170 182
0.059779 -2.410190 -7.037202 84 91 103
-1.480317 -2.633286 -6.222577 83 90 102
-0.511721 -2.465564 -7.005908 37 44 56
-1.118612 -9.913983 -9.372771 79 87 96
-0.097822 -2.523540 -7.140598 135 142 154
-2.558182 -9.311097 -8.208656 178 186 195
-1.589874 -9.603761 -8.844429 79 86 98
-1.267757 -9.870064 -9.601107 105 112 124
-1.755702 -9.532263 -8.774425 97 104 116
-1.018651 -2.720174 -6.794574 140 147 159
1.976887 -2.729695 -7.931997 172 132 196
-1.188004 -9.753358 -9.583664 90 97 109
-0.050230 -2.708210 -7.353262 107 114 128
-2.226937 -9.196345 -8.514737 128 136 145
0.137048 -2.774579 -7.462108 125 132 146
-1.395556 -2.804992 -6.818028 3 10 24
-0.085324 -4.863115 -2.631129 104 111 123
-2.779724 -8.896430 -7.987616 2 10 19
0.122541 -2.831810 -7.519154 96 103 115
-2.164384 -9.086557 -8.489232 107 114 126
-0.289120 -2.828298 -7.435468 83 90 102
0.615982 -2.764696 -8.005008 43 50 62
-0.168047 -2.855125 -7.484776 102 109 121
0.336430 -2.793144 -7.968425 91 98 110
-0.356593 -2.882929 -7.479158 125 132 144
-0.986680 -2.962252 -7.040555 112 119 131
-1.859886 -9.076437 -8.842345 2 9 21
-2.319872 -8.794447 -8.294452 107 115 122
-0.630647 -9.419815 -9.927644 76 83 95
0.595288 -2.867858 -8.105968 45 52 64
-1.068949 -9.182535 -9.711933 47 54 66
0.299086 -2.889613 -8.080652 93 100 112
-1.162552 -9.122271 -9.645659 13 20 32
-0.631220 -3.084874 -7.210781 65 72 84
-0.662961 -9.237467 -9.845199 111 118 130
-2.475019 -8.525962 -7.930331 144 152 161
-1.306898 -3.077817 -7.089301 149 156 168
-1.898257 -8.719342 -8.691834 101 108 120
0.056995 -3.157795 -7.814316 123 130 142
-0.999803 -3.083223 -7.562156 6 13 25
-1.725601 -3.312944 -6.848400 143 150 162
-1.252682 -8.798615 -9.193098 84 91 103
-1.755696 -3.389994 -6.910619 150 157 169
-1.971284 -8.547338 -8.602394 175 182 194
0.315824 -3.459843 -8.147092 0 2 14
-2.312684 -8.108169 -8.323144 103 111 120
0.003555 -3.435256 -8.072909 123 130 142
0.264915 -3.497018 -8.190175 79 86 98
0.205454 -3.516376 -8.192558 39 46 58
0.476150 -3.555624 -8.296737 46 53 65
0.305669 -3.568833 -8.263716 22 29 41
-1.577868 -3.554795 -7.464560 11 18 30
-1.676633 -3.546202 -7.443009 108 115 127
-0.141420 -3.586113 -8.172257 12 19 31
-1.411163 -8.280717 -8.931217 50 57 69
-0.197151 -7.693806 -4.519372 97 104 116
-0.706289 -8.410049 -9.487004 87 94 106
-2.327292 -8.003752 -8.561249 105 113 120
-1.532655 -3.803084 -7.303754 67 74 86
-1.653646 -3.792087 -7.277378 116 123 135
-1.010608 -8.118546 -9.270794 93 100 112
-1.869866 -7.889988 -8.937327 102 109 121
-1.455227 -3.895091 -7.405202 88 95 107
-0.809696 -3.932655 -8.247880 101 108 120
-1.817817 -7.643361 -8.540388 55 62 74
-1.182390 -4.023532 -7.904311 9 16 28
-0.792906 -4.104325 -8.051162 20 27 39
-1.310784 -4.139448 -7.598201 93 100 112
-0.625087 -7.575938 -9.458513 121 128 140
-1.344817 -4.253734 -7.676434 114 121 133
-2.095749 -7.176519 -8.244619 20 28 37
-1.277897 -4.379761 -7.780553 84 91 103
-0.129160 -7.488151 -9.893366 83 90 104
-1.722917 -7.094229 -8.308297 61 68 80
-1.476612 -5.729285 -8.266806 107 114 126
-0.522015 -4.687664 -8.539367 116 123 135
-0.076042 -7.212301 -10.148618 5 12 26
-1.027505 -6.967449 -9.054321 100 107 119
-0.281912 -5.766469 -3.339413 18 25 37
0.001987 -4.771072 -9.558678 87 94 106
0.290190 -4.895153 -9.287267 72 79 91
0.230149 -4.889425 -9.266361 29 36 48
-0.306894 -5.829651 -3.294083 108 115 127
-0.292809 -5.832056 -3.380929 38 45 57
-1.019515 -6.884821 -9.352730 109 116 128
-0.085450 -5.004020 -8.853164 133 140 152
-0.338134 -6.867565 -9.892293 87 94 108
-1.662237 -6.624749 -8.710785 101 108 120
-0.535047 -6.738727 -9.768412 105 112 126
-1.218154 -5.045403 -8.247426 152 159 171
-1.632412 -6.449691 -8.968780 6 13 25
-1.202888 -6.420403 -9.064643 87 94 106
-1.288917 -6.286531 -8.968825 112 119 131
-0.775610 -5.181857 -8.809757 132 139 151
-1.509780 -5.336335 -8.365046 115 122 134
0.569330 -1.839279 -6.860875 88 95 107
5.692269 -8.660400 -11.751706 59 47 119
0.732537 -1.871214 -6.946218 38 45 57
-0.294990 -4.316797 -8.732220 20 27 39
-0.341689 -6.968450 -9.966023 88 95 109
-0.434275 -10.184069 -10.281882 93 101 110
-0.024663 -2.617058 -7.258827 87 94 106
0.246403 -4.558218 -9.009845 98 105 117
5.520303 -1.949639 -8.898884 146 119 133
-2.824241 -9.080234 -8.000965 68 76 85
0.084387 -2.169630 -6.740148 104 111 125
0.075642 -4.903179 -9.233119 32 39 51
-0.632121 -2.147877 -6.607603 136 143 155
-1.517682 -6.919914 -8.896932 97 104 116
4.344379 -2.177017 -8.488547 155 136 150
0.754663 -2.221961 -7.423034 53 60 72
0.436341 -2.448182 -7.141127 100 107 119
0.103728 -2.429145 -7.068181 13 20 32
-1.187087 -10.098581 -9.709392 80 88 97
-0.556023 -8.601281 -9.945903 73 80 92
-1.560400 -9.409266 -9.645060 79 86 98
-0.187133 -6.368229 -9.664338 71 78 92
-1.425809 -8.528961 -9.336168 76 83 95
-1.589004 -5.327078 -8.341711 23 30 42
-0.898707 -9.356057 -9.818268 98 105 117
-1.302246 -3.092059 -6.726770 48 55 67
7.038669 -5.905934 -11.937029 18 19 78
-0.358168 -9.485265 -10.041093 22 29 41
-0.366667 -7.858079 -10.023141 18 25 37
-0.117884 -7.904485 -10.124090 94 101 113
-0.588778 -5.117683 -8.814596 108 115 127
-0.086592 -5.118823 -9.334661 87 94 106
0.393431 -3.992421 -9.088158 36 43 55
0.228054 -4.101718 -8.685221 24 31 43
0.372215 -2.878412 -8.063195 26 33 45
-0.915099 -7.524742 -9.351011 39 46 58
0.017720 -4.071003 -9.048158 115 122 134
-1.043578 -4.232812 -7.726554 112 119 131
-2.308832 -8.898646 -8.376418 68 76 83
-1.126236 -4.296864 -8.120676 102 109 121
-0.393365 -9.166791 -10.235632 88 95 107
-0.306343 -8.442248 -10.384189 83 90 102
0.735382 -2.344607 -7.674839 97 104 116
-2.500114 -8.469747 -8.106700 100 108 117
-1.002475 -2.200555 -6.106381 115 122 134
-0.288791 -7.991641 -4.594951 83 90 102
-1.973296 -8.546570 -8.599727 175 182 194
0.078594 -1.918727 -6.991946 89 96 108
-0.575967 -2.070576 -6.521707 122 129 141
-0.373079 -9.142071 -10.427263 89 96 108
-2.649824 -8.153288 -7.926952 40 48 57
-2.121484 -8.257713 -8.444120 115 123 132
-0.278729 -2.106582 -6.601603 94 101 113
-1.191610 -9.732184 -9.278847 76 83 95
0.087344 -2.162957 -6.724487 100 107 119
-1.666673 -2.208771 -6.107650 4 11 23
-0.900529 -2.145872 -6.566501 23 30 42
-0.536209 -8.565215 -9.747104 72 79 91
-0.218271 -8.657045 -10.272444 84 91 103
-0.127055 -2.243465 -6.801697 82 89 101
-0.735757 -8.441850 -9.631141 124 131 143
-0.924986 -8.282245 -9.503662 78 85 97
-0.846608 -2.236763 -6.708109 110 117 129
-1.299481 -2.361212 -6.326183 126 133 145
-1.323401 -2.408560 -6.340252 22 29 41
-1.542050 -8.081749 -9.241382 124 131 143
-1.000640 -8.107991 -9.403973 86 93 105
4.367123 -2.321850 -8.630741 199 181 192
-0.152169 -7.997083 -9.996276 25 32 44
-1.434688 -7.637925 -9.067805 75 82 94
0.447873 -2.450716 -7.151068 100 107 119
-0.050929 -2.465651 -7.084986 100 107 119
-1.547551 -2.525318 -6.457058 151 158 170
-0.347053 -7.796929 -9.842792 17 24 36
-0.436308 -2.465657 -7.020820 88 95 107
-0.098884 -2.526269 -7.145838 135 142 154
-2.005978 -7.351543 -8.416922 132 139 151
-1.602222 -2.643283 -6.575677 78 85 97
-0.108996 -2.614399 -7.234644 16 23 35
-0.040819 -2.637152 -7.281240 91 98 110
-0.108204 -7.800736 -10.363103 36 43 55
2.046573 -2.563134 -8.369406 172 132 196
-0.059321 -2.702964 -7.349213 107 114 128
-0.385208 -7.180125 -4.116261 36 43 55
-1.835990 -7.309623 -8.441045 62 69 81
-1.442044 -2.873103 -6.813696 105 112 126
-1.920098 -2.842682 -6.702225 0 4 16
-0.353118 -2.871009 -7.468557 67 74 86
-0.975739 -2.972623 -6.982286 111 118 130
-1.660323 -7.334671 -8.865907 26 33 45
0.008937 -2.825919 -7.802347 11 18 30
-1.239656 -7.433739 -9.343787 22 29 41
-0.161644 -7.587415 -9.797966 104 111 123
0.381944 -2.846203 -8.164031 29 36 48
0.317568 -3.009536 -7.728399 102 109 121
0.054901 -4.946238 -2.823887 55 62 74
0.062523 -3.144604 -7.806008 123 130 142
-0.604024 -3.304058 -7.833779 95 102 114
-1.413766 -7.178638 -9.254862 142 149 161
-0.832419 -7.213898 -9.031238 98 105 117
-0.555872 -3.360503 -7.892969 20 27 39
-0.912534 -3.512321 -7.478442 108 115 127
0.292076 -3.496570 -8.205253 31 38 50
-0.916959 -6.893407 -8.472399 135 142 154
0.496838 -3.571230 -8.294180 46 53 65
-0.709887 -6.947930 -9.321039 89 96 108
-1.247515 -3.565513 -7.456423 13 20 32
-0.504013 -3.526941 -8.047941 147 154 166
-0.334329 -6.941923 -9.889615 36 43 57
0.191497 -3.658447 -8.320499 84 91 103
-1.160736 -3.678250 -7.563687 103 110 122
-1.804346 -3.674995 -7.462907 12 19 31
-2.030013 -3.842368 -7.104906 98 105 117
-0.083732 -3.841927 -8.405360 43 50 62
-0.380499 -3.819827 -8.318272 118 125 137
-1.500293 -3.842934 -7.615278 58 65 77
-1.164031 -6.653583 -9.057120 94 101 113
-0.534938 -6.712510 -9.684957 95 102 116
-0.361410 -4.014446 -8.688801 73 80 92
-0.708446 -4.133132 -8.013304 98 105 117
-1.375537 -4.074461 -7.835236 168 175 187
-0.443597 -4.083095 -8.512367 11 18 30
-0.299292 -6.670362 -9.287915 74 81 95
0.377021 -4.215264 -8.792235 30 37 49
-1.710420 -6.393977 -8.381247 79 86 98
-0.701730 -6.536978 -9.107394 83 90 102
-0.338259 -4.372586 -8.755525 74 81 93
-1.185614 -6.430640 -8.932991 94 101 113
-2.003722 -6.283201 -8.252170 33 40 52
0.343160 -4.694235 -9.171933 40 47 59
-0.515074 -4.696830 -8.465558 18 25 37
-1.254590 -6.276767 -8.831828 112 119 131
-1.612616 -4.720009 -7.818075 67 74 86
-0.753074 -6.347120 -9.002733 133 140 152
0.046514 -4.839956 -9.163238 88 95 107
-1.648851 -4.808652 -7.852025 66 73 85
-0.066019 -4.999942 -8.784910 83 90 102
0.092939 -6.453982 -9.694028 47 54 68
5.552366 -5.613915 -11.270134 236 238 255
-1.545719 -6.110136 -8.267938 87 94 106
-0.459286 -5.226579 -8.834814 96 103 115
-0.780061 -5.190590 -8.741012 132 139 151
0.237065 -5.424589 -9.601746 24 31 43
-1.558380 -5.271796 -8.595943 114 121 133
-0.600229 -6.095457 -9.326592 95 102 114
-1.388685 -5.976638 -8.632210 111 118 130
0.175384 -5.564759 -9.673289 89 96 110
-0.941482 -6.013580 -9.191642 119 126 138
-1.800684 -5.518015 -8.276622 144 151 163
-0.183085 -6.002186 -9.386320 79 86 100
-0.549004 -5.773491 -8.713333 53 60 72
-1.570778 -5.646903 -8.827693 107 114 126
-0.410727 -5.863558 -9.241967 84 91 105
-1.894467 -8.713878 -8.690757 101 108 120
-2.214886 -8.712113 -8.279834 24 32 39
-0.367602 -9.519821 -10.167978 22 29 41
-1.514809 -9.144615 -8.970298 38 45 57
-2.146903 -9.058156 -8.435094 65 72 84
-2.457990 -8.983795 -8.315312 20 28 37
-2.732668 -8.836610 -7.894159 4 12 21
-2.198497 -9.156940 -8.457446 15 22 34
-2.966129 -9.134914 -8.523592 79 87 96
-2.793445 -9.064160 -7.948687 37 45 54
-0.433743 -10.199210 -10.403687 81 89 98
0.021532 -6.995955 -9.999522 83 90 104
0.222663 -4.460126 -9.467376 98 105 117
5.907615 -1.982490 -9.858012 183 156 170
0.438531 -4.290252 -8.677838 91 98 110
0.012190 -2.084896 -6.616276 8 15 27
-0.041071 -5.620923 -9.195171 54 61 73
0.803487 -1.883982 -7.097213 33 40 52
6.128470 -8.593899 -12.566668 55 50 120
-0.452061 -7.536518 -9.686981 95 102 116
0.693419 -2.165826 -6.847751 109 116 128
-0.989575 -8.519703 -9.210485 51 58 70
-0.484244 -8.699889 -9.821718 72 79 91
-0.200056 -8.220975 -9.672719 40 47 59
5.216854 -2.083208 -8.950004 150 125 139
-0.079542 -5.207218 -9.403445 66 73 85
-1.913184 -6.433404 -8.352368 142 149 161
0.055040 -4.153742 -8.689055 76 83 95
-0.638300 -9.540453 -10.089753 74 81 93
-0.469568 -9.927212 -10.291238 66 74 83
-0.304920 -3.513654 -8.078047 54 61 73
-0.291705 -8.387134 -10.130588 91 98 110
0.172776 -3.434952 -8.119635 22 29 41
-1.600937 -3.640612 -7.191392 95 102 114
-1.607244 -2.317415 -5.935222 4 11 23
-1.537934 -2.432391 -6.065508 97 104 116
0.753665 -2.204259 -7.387215 45 52 64
0.453850 -2.220794 -7.335288 79 86 98
0.732575 -2.303863 -7.504621 105 112 124
-1.497939 -2.618494 -6.268035 151 158 170
-2.665247 -8.781090 -7.716864 27 35 44
-0.420727 -2.532754 -6.886369 88 95 107
-0.066335 -2.579551 -6.990649 72 79 91
-2.349097 -8.910769 -8.201193 109 117 124
-1.524120 -9.164414 -8.912716 30 37 49
-1.387264 -9.193490 -8.955481 78 85 97
2.041224 -2.614019 -8.302747 156 109 185
-0.047119 -2.761277 -7.193020 96 103 115
-0.406442 -9.611514 -10.277377 25 32 44
0.649148 -2.710459 -7.943357 33 40 52
-1.836745 -2.924844 -6.495716 22 29 41
-1.021886 -2.829248 -7.122230 109 116 128
0.358490 -2.786072 -7.951830 66 73 85
-1.426883 -3.078841 -6.727894 108 115 127
0.320053 -3.059679 -7.570377 96 103 115
-1.527398 -9.130146 -9.303216 96 103 115
-2.302120 -8.756238 -8.525330 24 32 39
-0.217450 -3.113963 -7.520007 129 136 148
-1.722573 -3.303209 -6.896528 90 97 109
-0.241742 -3.214774 -8.254885 95 102 114
0.486572 -3.330819 -8.509262 23 30 42
-1.486884 -3.620035 -7.190878 32 39 51
0.495331 -3.502931 -8.664854 38 45 57
-2.619551 -7.965466 -7.742829 29 37 46
-1.968794 -3.738775 -6.698673 32 39 51
-1.123630 -3.712369 -7.324176 107 114 126
-1.460404 -8.345245 -9.004437 40 47 59
-0.744619 -3.835825 -7.503377 140 147 159
-1.573201 -3.767498 -7.296363 23 30 42
-0.887847 -8.272926 -9.121935 90 97 109
-0.575257 -8.411031 -9.728768 130 137 149
-0.184614 -8.490998 -9.883812 6 13 25
0.457929 -3.936190 -9.018296 60 67 79
-0.307927 -4.010771 -8.290299 66 73 85
0.437586 -4.048812 -9.102530 103 110 122
-1.330269 -4.147586 -7.628136 168 175 187
-1.007174 -8.131675 -9.479435 86 93 105
-1.359810 -4.246655 -7.695836 152 159 171
-1.413668 -7.497549 -9.087564 34 41 53
-0.167126 -7.617331 -9.990567 111 118 130
0.253407 -4.580957 -8.833883 87 94 106
-0.871709 -4.756047 -8.162047 104 111 123
-1.228713 -4.720406 -8.056878 26 33 45
0.310646 -4.764744 -9.599425 100 107 119
-1.341498 -7.148855 -8.939995 83 90 102
-0.933001 -7.246696 -9.600042 88 95 107
0.309837 -4.984777 -9.132612 62 69 81
-1.203217 -6.997021 -10.161157 100 107 119
-0.028493 -7.127416 -10.345245 98 105 119
0.028887 -6.975734 -9.725363 25 32 46
11.489542 -8.841399 -14.301564 162 109 97
-1.084547 -5.308603 -8.476212 115 122 134
-1.902728 -5.214633 -8.232848 15 22 34
0.231605 -5.438731 -9.411080 23 30 42
-1.131366 -6.525468 -9.169788 23 30 42
0.209818 -5.566412 -9.485887 97 104 118
-0.960606 -5.646742 -8.710299 8 15 27
-1.785196 -5.626132 -8.004725 88 95 107
-1.974366 -6.116170 -8.253896 33 40 52
-0.576311 -5.777242 -8.882503 57 64 76
-1.056628 -5.755957 -8.261942 31 38 50
-1.007988 -5.764906 -8.773805 89 96 108
-1.591261 -6.128213 -8.347768 94 101 113
-1.045234 -2.674694 -6.934888 78 85 97
-0.628970 -9.557454 -10.184201 72 79 91
-0.520977 -8.619396 -9.835554 73 80 92
-1.050291 -9.187379 -9.452628 78 85 97
-0.322955 -6.689628 -9.468718 98 105 119
-0.501496 -6.708723 -9.428302 58 65 79
-0.074983 -5.193060 -9.172117 83 90 102
-0.591982 -5.094018 -8.999752 125 132 144
-1.184211 -3.048980 -7.285297 111 118 130
-0.319937 -6.921223 -9.592668 79 86 100
-0.101140 -4.980858 -9.052640 133 140 152
0.198305 -5.659078 -1.499900 156 163 175
-1.703895 -4.781751 -8.000042 139 146 158
0.013056 -4.774115 -9.561163 88 95 107
-1.673050 -4.674977 -7.935438 122 129 141
-0.476913 -7.562646 -9.869492 95 102 116
-1.696710 -7.327600 -9.119411 24 31 43
-1.951403 -7.358071 -8.878391 147 154 166
-0.340634 -7.832955 -10.040395 24 31 43
-0.147441 -8.069657 -10.212042 26 33 45
-0.128758 -4.208773 -8.466482 90 97 109
-1.421349 -7.942488 -8.840708 123 130 142
0.429293 -2.320273 -7.451177 97 104 116
-0.051756 -2.530808 -6.937279 111 118 130
-0.675412 -8.367270 -9.244926 61 68 80
-1.551353 -2.733745 -6.383702 78 85 97
0.072927 -6.507950 -10.043347 46 53 67
-1.826284 -7.680227 -8.211343 47 54 66
-0.455633 -9.825372 -9.879930 89 97 106
-0.118733 -6.817328 -10.153168 102 109 123
-0.493444 -8.724708 -9.888996 80 87 99
0.058061 -4.182925 -8.515796 76 83 95
-0.947194 -6.155580 -9.007481 93 100 112
5.388293 -1.961897 -9.343306 230 205 219
4.293756 -2.411554 -8.439740 170 151 165
7.416235 -5.845834 -12.550295 32 34 88
0.471739 -3.197030 -8.382326 122 129 141
0.664859 -2.106278 -7.238868 110 117 131
-2.349138 -3.446299 -6.427808 79 85 102
0.022775 -5.988161 -9.728097 100 107 121
-1.598683 -3.630031 -7.176333 95 102 114
-2.056332 -3.601225 -7.035250 31 38 50
-2.525091 -8.660727 -7.338981 15 23 32
0.770727 -2.449305 -7.127988 107 114 126
-0.422797 -2.508305 -6.984604 87 94 106
2.088941 -2.526207 -8.496373 156 109 185
-1.846952 -2.896099 -6.512348 29 36 48
5.356414 -5.618959 -10.746965 139 134 220
-0.034138 -6.270260 -1.896596 118 125 137
0.354713 -4.664413 -9.031165 20 27 39
-1.801905 -2.214736 -6.483979 38 45 57
-1.110193 -6.484048 -9.154811 24 31 43
-1.367921 -7.497136 -9.008361 34 41 53
-0.091478 -7.719678 -10.063878 18 25 37
-0.780182 -7.434509 -9.127122 82 89 101
0.278463 -4.516042 -8.904408 108 115 127
-0.885143 -4.747275 -8.153258 73 80 92
-1.542873 -6.525706 -8.479214 52 59 71
-0.747196 -2.704819 -7.151544 140 147 159
0.354257 -4.802266 -9.177373 104 111 123
-0.032685 -7.110558 -10.453648 98 105 119
-1.315811 -4.791526 -8.097620 93 100 112
0.603367 -3.057924 -7.750899 39 46 58
0.227061 -5.399682 -9.494751 12 19 31
-1.728509 -3.299078 -6.883717 143 150 162
-1.837868 -5.347290 -7.753476 57 64 76
-1.430628 -5.524262 -8.523222 26 33 45
-1.660990 -5.496450 -8.451986 57 64 76
-0.266568 -9.402820 -10.144438 102 109 121
-1.393510 -8.386702 -9.400254 47 54 66
-0.340365 -4.010565 -8.401462 91 98 110
0.450921 -3.862677 -9.218109 22 29 41
-0.522105 -9.281515 -10.014111 22 29 41
-1.592636 -2.289760 -6.576825 41 48 60
-0.574391 -5.727244 -8.852999 87 94 106
-0.593127 -7.521891 -9.220863 26 33 47
-0.067402 -2.530853 -7.059958 60 67 79
-1.868379 -5.567753 -8.446315 88 95 107
-2.488950 -8.493245 -8.142288 41 49 58
-2.007371 -8.544921 -8.766355 51 58 70
-0.147441 -8.069657 -10.212041 26 33 45
-0.280271 -8.910076 -10.541763 17 24 36
-0.232614 -3.123183 -8.445611 72 79 91
0.269309 -4.885355 -9.928323 9 16 28
0.202180 -3.640119 -8.194856 101 108 120
-1.194549 -5.850162 -8.774570 130 137 149
-0.766114 -5.970793 -9.609710 88 95 107
0.036381 -6.929830 -9.703349 29 36 50
-0.505032 -6.680790 -9.412383 26 33 47
-0.017917 -7.263547 -9.860312 39 46 60
-0.180276 -7.585556 -9.970979 67 74 86
-0.678929 -9.245125 -9.950277 111 118 130
-0.290916 -6.657777 -9.460707 18 25 39
-0.745657 -6.323127 -9.152451 89 96 108
-0.329189 -6.873229 -9.564747 87 94 108
-0.348964 -5.856171 -8.988952 40 47 61
-0.445671 -7.538942 -9.867362 26 33 45
-1.039934 -8.571518 -9.565670 68 75 87
-0.853908 -9.325618 -9.927610 95 102 114
0.025067 -3.462884 -8.029395 47 54 66
-0.911094 -6.143151 -9.009607 34 41 53
-0.394917 -3.836965 -8.250097 105 112 124
-0.879300 -5.992631 -8.932241 31 38 50
-0.697730 -8.409288 -9.596656 61 68 80
-1.212129 -5.029733 -8.265200 80 87 99
4.328532 -2.382510 -8.487899 199 181 192
0.602568 -2.625125 -7.292961 41 48 60
-3.800200 -3.910945 -4.852386 122 131 142
-2.475805 -3.316225 -6.751549 79 85 102
-2.442901 -3.328838 -6.852540 136 142 159
-0.064784 -3.861337 -8.347935 15 22 34
5.593261 -2.228626 -9.136621 157 130 144
-1.142557 -7.869753 -9.246598 24 31 43
0.181805 -5.184569 -9.388658 46 53 65
-0.604781 -7.223646 -9.664929 53 60 74
-1.892126 -6.424291 -8.341632 38 45 57
-0.048391 -5.575338 -9.573438 61 68 80
-1.023220 -4.221128 -7.752574 110 117 129
-0.172196 -4.727966 -8.301103 46 53 65
-0.231075 -5.985094 -9.769112 79 86 100
-1.056561 -4.342270 -7.835207 19 26 38
-0.242696 -4.941341 -9.105768 25 32 44
-0.090726 -4.956429 -9.157312 62 69 81
-0.132216 -6.355098 -9.338796 23 30 44
-0.437936 -2.611393 -6.802032 105 112 124
-1.558877 -2.539396 -6.567333 31 38 50
-1.027210 -2.712927 -6.846587 152 159 171
-0.696121 -2.776340 -6.946317 102 109 121
0.332005 -2.803178 -8.099740 93 100 112
-1.829381 -3.187361 -6.422913 51 58 70
-1.194681 -3.281732 -6.569720 65 72 84
0.053629 -3.013574 -8.239252 53 60 72
-0.802980 -3.628701 -6.956896 132 139 151
0.038436 -3.531886 -7.801003 97 104 116
0.180140 -3.503937 -8.719644 87 94 106
-1.585146 -3.822847 -6.976797 108 115 127
-0.114140 -3.744141 -8.846472 100 107 119
-1.176327 -3.958385 -7.917486 104 111 123
0.133731 -4.033569 -9.144469 78 85 97
-0.184359 -4.064948 -9.084235 88 95 107
-1.121144 -4.269513 -8.143889 26 33 45
-0.609153 -4.367741 -8.331097 131 138 150
-1.706823 -4.507203 -7.459520 114 121 133
-0.211310 -4.674922 -8.644433 84 91 103
0.321972 -4.753118 -9.734219 101 108 120
-1.122300 -5.080124 -7.960062 75 82 94
-0.235781 -5.510351 -8.435430 24 31 43
-1.130388 -5.325155 -8.859030 22 29 41
-1.890775 -5.316939 -7.944224 57 64 76
-1.589593 -5.631576 -8.928055 101 108 120
-0.222230 -5.992373 -9.490485 81 88 102
-1.661978 -5.909515 -8.338648 114 121 133
-1.221586 -6.205978 -8.612840 62 69 81
-0.165422 -6.393392 -9.737030 81 88 102
-1.047772 -6.475226 -8.806703 25 32 44
-0.020186 -7.102910 -10.163501 98 105 119
-0.065342 -7.381150 -10.291559 15 22 36
-1.816718 -7.049306 -8.895616 91 98 110
11.432573 -9.454866 -14.395510 188 150 152
-0.507330 -7.593963 -10.259904 116 123 135
-0.068185 -7.678484 -9.672881 18 25 37
-0.691450 -8.125352 -9.732458 20 27 39
-0.229701 -8.279290 -9.904103 45 52 64
-0.578754 -8.423285 -9.862114 130 137 149
-2.650186 -7.933756 -7.869934 30 38 47
-1.446140 -8.463425 -9.644112 82 89 101
-2.027283 -8.180440 -8.138511 67 75 84
-0.333161 -9.065074 -10.975675 12 19 31
-1.196538 -8.663628 -9.148604 82 89 101
11.362737 -11.954860 -15.231470 196 142 122
-1.530377 -8.860496 -9.129472 76 83 95
-1.303927 -3.110637 -6.268175 103 110 124
-1.317303 -3.074587 -7.131627 126 133 145
-1.925254 -3.659998 -6.686364 37 44 56
0.199870 -3.713187 -7.982087 101 108 120
-1.506075 -3.806542 -7.722020 58 65 77
-0.704693 -4.111231 -8.118230 89 96 108
-1.409268 -4.356977 -8.149911 91 98 110
-0.964228 -4.462002 -8.321974 139 146 158
-1.459348 -5.061970 -7.744316 111 118 130
-1.570703 -5.204188 -8.677418 117 124 136
-1.107020 -5.327580 -8.867243 15 22 34
-1.855212 -5.335341 -7.835719 57 64 76
-0.252777 -6.027467 -9.485763 76 83 97
-1.152746 -6.243866 -8.514319 89 96 108
-1.563628 -6.547266 -8.574787 87 94 106
-2.290861 -8.063234 -8.344835 98 106 113
